0.9802536918017217 -0.2559320215306957 0.3254182294609374
0.9731411140094259 0.1187001333600739 -0.16877063018529853
0.9701825356951027 0.11989473384685478 -0.17123434237668875
0.9737735332560254 -0.026394888970012964 0.05962907691179846
0.975987460763033 -0.0304215802764658 0.06305983044743436
0.272840267328821 0.48639564163837967 -0.03462763668947326
0.9673429353653616 -0.20760484441703508 0.14166618289852734
0.9710687784214083 -0.04580099249517633 0.0445204140076341
0.9743506228910471 -0.19023828079612426 0.2864127115737603
0.9727165971359502 -0.07270839149936137 0.023165108510311287
0.9748387098432596 0.12264710366087028 -0.16609124460538832
0.971859257654281 -0.027828128800363006 0.07206083970482771
0.9749491385618353 -0.021300865688070214 0.06647702881173961
0.9646741044856983 -0.3449600560755761 0.22220070855733187
0.9683381839850074 -0.3537745272708994 0.2127284778969673
0.9718241188544802 -0.3608473380373045 0.2065735825972199
0.9852239495728252 -0.35979471062357726 0.22914403686914125
0.975225674164012 -0.1908825046725109 0.2934300066471123
1.027252365837609 0.20407689010452845 -0.14661593791548055
0.9751497013118484 -0.19035588888175914 0.28997498094068386
0.9758579560110987 0.12930402907349414 -0.14761878002157713
0.9738045601183609 -0.018369668309291542 0.06418550029945502
0.9773204015266459 0.2859007075921074 -0.17270368502186806
0.9841569744041504 -0.10153155524338886 0.00063453711455332
0.9701743229361665 -0.09523860107120408 -0.0006965075008547762
0.9788424544941934 0.11524954998293357 -0.18337895951328959
0.9797062539562242 -0.44313815587592287 0.29623500036445294
0.9794918952553324 -0.44662271577328805 0.2966945611566435
0.9752100095709448 -0.4448007933555269 0.29776554401997724
0.9763940515506614 0.12518759207033092 -0.13414345323533705
0.9815074245732625 -0.42856518672157795 0.44874290511102366
0.9739558786929974 -0.033001038757264345 0.06620578213765223
0.9756190861547129 -0.0386709079101184 0.07089458988355826
0.9773598348401557 0.2899978728519117 -0.16891836964896398
-0.8973985128814993 0.4808461391613621 -0.3742852843051374
0.9789390922868944 0.1345597744120619 -0.15318251854348716
0.9783163932827952 0.13311525099097743 -0.049358109936624366
0.9773678020542684 0.13194859529007807 -0.04650814041706306
0.9760200909256442 -0.03248184339533755 0.06183718258743806
0.977829621469883 0.13489517921086103 -0.14139190218243847
0.9740693473652513 0.13679616272724426 -0.0500339115520291
0.9949053105545016 -0.1995631108572702 0.1615458358084039
0.9749963100541759 -0.21030171101888961 0.15479758336548663
0.9810887280854333 0.2632474586711 -0.14721363079284555
0.979419409807401 -0.37153485562366173 0.4045914704330946
0.979008022276969 -0.0028058166822653163 0.08156430276677931
0.9785964114785577 -0.0034064939410893835 0.08318208953459308
0.9739442359389471 0.12000726806400785 -0.16967899433137623
0.9821094269307411 0.14191280932067452 -0.1486809088389355
0.9750931142610386 0.14554583204830962 -0.15056874398870607
0.9821048862901214 0.29082617188373727 -0.1703735366570411
0.9835538534907957 -0.05546846283297291 0.049743894831988544
0.9776828308958067 -0.005858377953751326 0.08611872602764237
0.9802083469816009 0.23417547952340523 -0.11168599164669404
0.9717737264866839 -0.19648060371500375 0.17665572909066582
0.9678703311988418 -0.19201712065960175 0.17186532495908458
0.9779590816095015 -0.025954782246720987 0.06953442064654006
0.9820610223203143 0.14177894723902384 -0.14766871701615256
0.9866357164077147 -0.5150741620480486 0.35160542708535286
0.979622199742439 -0.5120130976792828 0.3474173139077742
0.9791206248350268 -0.05323414314440944 0.04857759797583853
0.9814246166933527 -0.0038448828065020813 0.100289857137107
0.9812308175098952 0.005167858618135401 0.09362812425937742
0.9839948147170763 -0.425196508476686 0.4485892966543389
0.986126263521148 -0.0853749682741507 0.01919799657198116
0.9794714380079239 -0.08243183408310228 0.01895025823974946
0.9821905118725041 0.2296191847260043 -0.10106130889833512
0.9813111068282232 0.23412484334607098 -0.10490212191206938
0.9865003201393564 -0.14572542958390455 0.2450737301629414
0.9817795335856973 -0.3692222442810347 0.397540826751558
0.9811448283117881 0.2345468033681799 -0.10578553738364578
0.9920126676534431 0.29741528776290016 -0.20386740735135583
0.9993141843972251 0.30372751034226164 -0.2118417196890578
0.9806279775935234 0.003927944189642041 0.09378847835222581
0.9841527749638347 -0.0020723523554910805 0.09880455738811197
0.9826483770887671 0.15172859703236785 -0.12510894913885223
0.9796016158728653 -0.07831182037363171 0.025265439328753816
0.9787541921910732 -0.07695577611919147 0.025224304532267306
0.981533233369238 0.1453695884078634 -0.1343393997379605
0.9876040561778501 0.1410524315914241 -0.16051958715157585
0.9740566338172271 0.13413681427430024 -0.150213331571465
0.982016427316162 0.1376330717810037 -0.15654334245942517
0.9817142872159873 0.21854721562101265 -0.07662057728043727
1.0261434157358735 -0.23038235157672693 0.10317171820267429
1.0078408947878743 -0.2319080595278824 0.10899346760972062
0.9886370600978598 -0.08037805814248689 0.02610052951289052
0.9830950254446611 0.15371021892967018 -0.1160608942866822
0.984827257959416 0.22866068407384588 -0.08191329887719467
0.9835839953241285 0.22506700393426216 -0.08124956969530181
0.9841805136563428 -0.23266770514789714 0.32101175107345065
0.9864863077514183 -0.2276498608868942 0.3158219235549568
0.9819790859250545 -0.010666055142419584 0.0884785424663253
0.9853930408057376 0.15887514223763155 -0.12016090933037525
0.9735431439430638 -0.18287249928268334 0.19562567740958153
0.9702425034200757 -0.1753763198102387 0.1912516800870217
0.9830649097212336 0.15405073921849866 -0.12633090896981236
0.9829667666498472 0.013475676474219433 0.09696598867495826
0.9846002702827784 0.012909911881209712 0.10380228118424634
0.9864408843549075 -0.22986291810432968 0.3219242822505333
0.9812216241685823 -0.03684642981231612 0.07683755866508615
0.9888287045667471 0.14624098979992084 -0.15276120954087022
0.9854824394183861 -0.39607404387057554 0.42981756460710485
0.9826379371055696 -0.3962174859446964 0.42600131949087305
0.9786896088235335 -0.10562731257213698 -0.008473002099475305
0.9815288708639582 -0.10682925411923261 -0.007508805999840482
0.98909484219613 -0.4467348406029692 0.29566898744376424
0.9871373794849805 0.0060075912845201085 0.10890396225850468
0.9803086793047904 -0.02861982532693763 0.0713412996242683
0.5244353757695086 -0.6294507456186483 0.06698850571881634
0.984533985495253 -0.004844640364924047 0.0999988780184845
0.987574956002307 -0.011077434130411401 0.1044948741350744
0.9899611031046123 0.13209257460013624 -0.17609614633613585
0.9857449323089507 -0.400829511116761 0.4328365006603923
0.9850017976059904 -0.23398168102181405 0.32236292245988774
0.9871593735720673 -0.23453813381802835 0.3244792057361394
0.9863286043746647 -0.44448532700916876 0.2957352584316283
0.9945357949634259 -0.4418749827405575 0.29176051651196194
0.9925391623608233 -0.36067687430352 0.21066857181436946
0.9883888217544479 -0.2560318853352772 0.3303327702997797
0.9889916265671804 -0.2368689805424824 0.32503257119939477
0.9895439429523385 0.1690154817462235 -0.11043893923094718
0.5895179034279658 -0.33409442747839435 0.09955958319650912
0.989344541419105 -0.38519014273396546 0.42520419746632593
0.988505696637806 -0.3861045796405902 0.42524979084197045
0.9829699074873848 0.001530529055877583 0.09787775031610728
0.9878493137666055 -0.002780330752326421 0.10399957344812602
0.9946245009817635 -0.01328941088547464 0.10426972962035466
0.9888034205629253 -0.40010667478296613 0.4371119006160572
0.9898179085551266 -0.387570781030791 0.4277399872991961
0.9976153312060018 -0.06769687203763253 0.04551174247746558
0.9886903076141205 -0.10223997212450131 0.0012434968724768264
0.9920623390916659 -0.09161285125532226 0.014069136309327901
1.0101422278715706 0.26707945881992834 -0.11590011253049111
1.0100305379371766 0.23795385372871602 -0.09290131980721764
0.9868875293917398 -0.22312144227511066 0.13212005875279392
0.9813281073413871 -0.4260898191789336 0.4486073995912661
0.9885725402387799 -0.22768542741387932 0.3197808740168384
0.9872563126575682 -0.23281992177487054 0.32456278966678337
0.9900314247825635 -0.058643485030420495 0.05096516646931346
0.990516899225933 -0.408689806267305 0.4350742722134504
0.9908068161478605 -0.5149039923789995 0.35115254744442664
0.9979155332946436 -0.5145215935147872 0.3499973647920065
0.9862954624535598 0.15721811794455642 -0.1297635159888056
0.9810247113969031 0.15298477203951877 -0.12465341886373153
0.9834331403014391 -0.2511658821719125 0.32927784147394956
0.9928122152380282 -0.22732403997103257 0.31261228464439206
0.9866796911966114 -0.2256499382611974 0.3180285653826642
0.9856224653201024 -0.2380780396460871 0.32123906925014123
0.9880550930131784 0.005187013783118921 0.10958595451760997
-0.9130363300075991 -0.1447026479545852 0.014982833276952002
0.993835969515361 -0.38416517777683235 0.413938294634022
0.9904657268992989 -0.1566106922785988 0.2590131367753189
0.9904180347210647 -0.15688689995433824 0.2604291749738026
0.9879702832687222 0.1622097481135798 -0.12301462390859151
0.9921072532773768 0.16478387208217438 -0.12599435719938384
0.9959497576767784 0.16633396942040135 -0.12861023228441565
0.9879970065044396 0.14214438613688096 -0.1602579660028537
0.9909488210298312 0.17793574878889262 -0.09366228215260754
0.9895917545897628 -0.01830045620424192 0.09234036046119169
0.9898163847129495 -0.1491696045266917 0.24986473847482346
0.9909777554878427 0.1745718608554192 -0.10342887824076136
0.9976279854775854 -0.16639828307851312 0.20547382575508588
0.9827508913864955 -0.3576539054645054 0.3876582183437113
0.9816581077452289 -0.3618515411242764 0.3910949419066776
0.991858359089537 -0.020187907664677818 0.09271405137131956
0.9997398891944241 -0.3660856992862018 0.39256637162566166
0.9958461839985411 -0.36650259660551865 0.3926909618832623
0.9876781360475099 0.29983041098152285 -0.14323842675246148
0.9906747394442743 -0.15753506991003619 0.2622348051207473
0.9922232724873897 -0.16333316550255983 0.2608117277429413
0.987600893336639 0.17796300575184487 -0.09469004193837216
0.9738465315099398 -0.4021504886674472 0.43270565517951864
0.9898303758176981 -0.08676009551047503 0.01985044562623156
0.9913914345510407 -0.23832123867446997 0.32397991580090135
0.9958595927412011 -0.15129151624639792 0.25501053603358403
0.9981690024753138 -0.1602128060371295 0.2641404984003622
0.9951237440161547 -0.15446264904319107 0.2604934738917537
0.9891328088554624 -0.4034135171261459 0.43863664756879184
0.9908666264040233 -0.4073425122629494 0.43794689155622657
0.994387119699363 -0.23893045722408912 0.32204210143241485
0.9952281852612932 0.1904406442360096 -0.08219216418753063
0.9950114739042816 0.1912058647888737 -0.07934568886635537
0.9916867291098136 0.18075642951038784 -0.08147724755354493
0.9969035446805281 -0.04514587377631463 0.06974662224823407
0.9960571589329683 -0.08328518479741343 0.025886220177712208
0.9892624036199991 -0.36745144438933197 0.3976147765720365
0.992914562496656 -0.2266270719507908 0.31788164890780246
0.9966483305951698 -0.20817209546554238 0.14923955465434333
0.9937505070228168 -0.38221406199978647 0.41925482077427834
0.9980707633550235 -0.4506052659045705 0.2960479127635183
0.99529866933046 -0.22767706528425524 0.3128506199525915
0.9955720968551094 -0.43728941848260794 0.45025537564780943
0.9914210074656509 -0.3829963089846159 0.42390120975676454
0.9945936977356049 0.19145395481813132 -0.07527483469130967
0.9825044083572583 -0.032739076627019026 0.07312342675815083
0.9801708043245068 -0.41081733503384543 0.4380707878926168
0.9976555490826517 -0.1510564394332219 0.2546123831002755
0.9949035651794425 -0.15305894587614954 0.251827730532943
0.9834092895148466 0.17505450194218075 -0.10036442302927494
0.9924369827488453 0.17693531916281424 -0.10461437773907907
0.9972814020477663 0.12965601417198624 -0.18514935014345868
0.9945840659755856 -0.1729125850160651 0.1483053244545916
0.9903979735684191 0.1411560072003084 -0.16226634605643037
1.0129246371158325 0.16504681929621468 -0.14181619810400498
1.0109731945088538 -0.14214092470124662 0.23418799559973508
0.9960148646209155 -0.22876433824942843 0.3124761147741969
0.9954568628677065 -0.16345512399076423 0.26428949894177256
0.9922277654425785 0.00266234010515487 0.11098054491521368
0.9987504846262637 -0.1627301262222618 0.2652836453158307
0.9936037540668322 0.1826625298595006 -0.09939774017892648
0.9941928726864404 0.18172046615199733 -0.09864664261651504
0.9970841499129136 0.1622964443529693 -0.1369892230490348
0.9955250098792248 0.1919685448558024 -0.057543331389633814
0.9907594974114078 0.18400361504234852 -0.05082194973775926
0.9989193803199612 -0.24330587747610521 0.1066522128389495
0.9946979295307313 0.16238648014137858 -0.13555916647338798
0.997614848985952 0.19600070070114994 -0.07933500118150817
0.9972772953580409 -0.4071407342486365 0.44154582637684736
0.997847103281581 -0.2289052438418353 0.3184141933518687
0.9853293702408104 -0.3308961505433192 0.3659139210362037
0.9911257187123588 -0.26127322736702885 0.3270459294378439
1.0076877207724433 -0.2688492199138841 0.32552979264390225
1.0133989299756418 -0.10732056877462681 -0.001111769043885371
0.9992104946583967 0.30600772802299225 -0.1441759514989822
0.9973027076133876 0.19982717740218225 -0.06294106427120319
0.9959624603314353 -0.3809076598234453 0.4206486262282146
0.991289286443721 -0.2300097105994654 0.12220030912393898
0.9977353479872247 -0.03146231875850081 0.10233444193274399
1.0009248427838844 -0.16491494070954205 0.2616246429860656
0.9908317782132159 -0.0601185822866217 0.05072562610493002
1.000014415032774 0.20440515701880724 -0.06770821954809438
1.005038455010156 -0.5128134896272185 0.3474634130809767
0.9976097988095165 -0.23755370011101484 0.32218507002455177
1.0000206247462435 -0.23478521493155036 0.3195034379007844
0.9956755881134342 0.1435831133133274 -0.16337155936568937
1.000468500574639 -0.4131807940603811 0.44142848444442084
1.0026334038984306 -0.18154600394925913 0.18485459962150583
0.9804620429442492 -0.19409567822230422 0.17340659036867767
0.9981568713086065 0.202651556606936 -0.05510444523910224
1.002996483781763 -0.4117247914304718 0.44308329298211013
0.9990499397153694 -0.23230331395469728 0.32054222222829337
0.9991953988455876 -0.229431268176707 0.3177881041894065
0.9978692299599845 -0.3806556758621066 0.41520599944443615
1.0010104930608354 0.19887545073834723 -0.08177497275744905
1.004482581106236 -0.172331251046832 0.19606103657580687
1.0013249181430524 -0.15362379707542462 0.25352245398066064
1.0034615793455681 -0.15567262752882405 0.2538321672487981
1.0101741252650906 -0.2632627142984556 0.3308605292004404
1.003836740384258 0.14924624184923108 -0.1591596477812448
1.0012613831382406 0.1513567602433683 -0.15402761237011417
0.9917820861370579 0.2484942789268394 -0.28979773251988916
1.003123827508876 -0.366778347092795 0.39460966225999683
0.9958360885781983 0.07671264540628187 0.05217809953702701
1.00371306444127 0.5036530715555911 -0.3455688975834911
1.0120834462756574 0.1618081444337569 -0.14464206556810025
1.0197151137824099 0.18469289426395274 -0.11674900989142037
1.0018496052052566 0.18147190314731643 -0.11098503640014593
1.018759696731262 0.19060631976253295 -0.12094007005742186
1.0036468135360663 -0.15671767034294803 0.26013756116512293
0.9963549216450899 -0.15248714846317135 0.2584494981598389
0.9975271403783059 0.2001697556521349 -0.06203394548121431
1.0002576934206362 -0.014593541817884415 0.10537119720808981
0.9967048135458538 0.17928178234222436 -0.1083658303611744
1.014655692271923 -0.09134967647262471 0.0176547434601799
0.9994232764962954 -0.41620285556159187 0.4378848175826323
1.0012654882009586 -0.41677587337811683 0.4379365510126051
1.0094943682479411 -0.2525565324816281 0.3269974038771467
1.0075977193140473 -0.26008522161143866 0.3309738212912897
0.9921175768642462 0.20052966339107714 -0.0640729068112724
1.005287996168357 -0.43930982917043937 0.44957359701677124
1.0023728611606337 -0.04705595199711188 0.06964364717028945
1.0190860687542433 0.19719665042598655 -0.1169907794057542
1.001791685595801 -0.1639538489932213 0.2631491903733819
1.003124048753766 0.1244397681687377 -0.19477807680079762
1.005348797659671 -0.08525834151239464 0.025166213352067
1.0106927455283845 0.1983314849829143 -0.09316196526460914
1.010273502950024 0.18898297290045019 -0.10685668197311408
1.0025562780790875 0.06898289970385063 0.05864119367740202
1.0008272596220085 -0.013242221977750601 0.1060810016227749
1.008754726146869 -0.43565257115571 0.4492960654922849
1.004869026383403 -0.5121557527973888 0.34423139443029965
1.0080132989095427 -0.379863108967224 0.4129853697686155
1.0059698579227438 0.08448617013856152 0.05168202804392226
0.999951407184226 -0.041484237146318215 0.0764303850913316
1.0123115340800724 0.16454271118883312 -0.1418204956570495
1.001440296312177 0.12976455955561694 -0.1851752184833155
1.004501704124288 -0.1620330357346289 0.2604460439621088
1.0061404912502998 0.06847305868017917 0.058788070331799995
1.0017146860727764 0.0676880330253753 0.05853183539090598
1.0000104622106034 0.13873569679053732 -0.17195971856629008
1.0120623594301048 -0.36056525465879097 0.20571235297773302
1.0013256242860835 -0.36459147326165553 0.20374717848960971
1.000402955799006 0.20495652130299336 -0.06695915428646852
1.0028363495727666 0.21191363080594217 -0.05734751552309311
1.030192503465615 0.0640160454959029 0.05638411173680955
1.0058078932798036 -0.3813417466997062 0.4190540440464683
1.0150221329228752 0.17951210245781946 -0.14447844778020108
1.0052659287301569 -0.15811898726531703 0.25817671718581087
0.9995856563986927 0.17441393290645335 -0.11966388828508906
1.0002631809000835 0.1704149659380667 -0.12667240325763893
1.010863430123556 0.20327895785111272 -0.08779546588249973
1.0109660040887192 0.20963959818631173 -0.09199713300323806
1.0048418825301397 0.20050220102483896 -0.08468674366363503
1.0069079200372388 -0.06974297446872546 0.04429405001653609
1.000013648554981 -0.06824785819448498 0.044575559770065436
1.0052035994328883 -0.45192423750308197 0.2968439214008136
1.0102583829351286 -0.4586139774000262 0.2991558119854698
1.0032067032336316 -0.3665861323118764 0.3913172115521764
1.0059218339609999 -0.36702283417585235 0.3921997838015413
1.011694829652835 -0.3681075608161539 0.39255508017152296
1.0221517549332235 -0.21201860325158717 0.14963392647508159
1.0084039605651294 -0.21004623207458395 0.1482210187175551
1.0072043825792787 -0.02726479519924485 0.09547706133637576
1.0127887862579523 -0.02868118813431697 0.09415788226871483
1.0169432602229327 -0.38488573491693756 0.4099437713924907
1.0004696684109502 -0.02476370301156461 0.09420929614277723
1.0094281338138842 -0.11287977723988218 -0.009487268194593975
1.017110857599575 0.1495703985938761 -0.17248274459251287
1.0091899446745276 0.3047139392485423 -0.13809818831311593
1.008989132633922 0.2938058946544184 -0.13295770481637348
1.0086243174079454 0.2996733030913854 -0.1363916905003936
1.007881544487112 0.2835572255542822 -0.12812377149381315
1.0105328052194715 0.3159846110166904 -0.15031449231147898
1.0091375248140664 0.30941301376534414 -0.14281597255599027
1.0081603441657063 0.20963600561575157 -0.07469804546535477
1.00463406887381 -0.14277662015056958 0.23498931611354548
1.0098496563052988 -0.18995992011021734 0.1725301272730528
1.0101823914266652 -0.1628368455484408 0.13558093320984088
1.0193790957185458 0.21222452369030198 -0.0788569263452281
1.0114960588422761 0.3157157582234813 -0.14636959420242282
1.0129663441554424 0.3170941091286523 -0.14680720346029633
1.0126159293123178 0.2849500006580108 -0.1267654452288012
1.014218395328513 0.27986377825806796 -0.12487111566301837
1.013771001158259 -0.5087458277458936 0.3425871507869733
0.1944639248127757 0.2633341331146388 0.14282410858274694
1.0126900504629015 0.30908679752274093 -0.13952124632186863
1.0027880817050552 -0.24491308274304813 0.10505366947739858
1.0196763334636951 -0.021472725947516036 0.10547804287706282
1.0021026358049894 -0.015429286650371576 0.10569844795386861
1.0001145846418553 -0.016969987364958694 0.1059482894983391
1.0112522109790592 -0.41660226588495985 0.43878887629395397
1.0121018423155683 -0.014156706633385419 0.1111171935534715
1.0133109805714695 0.2917535844342498 -0.1267411593493592
1.0057691118052225 -0.14317339877033497 0.2389401647636808
1.0175886697116665 -0.4400397972455139 0.44638428074200764
1.0113209265721665 0.19096437559517776 -0.04087116174372202
1.0101178097684547 0.18837524633130842 -0.10755264021056346
1.013015599709317 -0.41267606261805856 0.44174964941024525
1.0180503708883066 -0.42494160414414617 0.4405218016604043
1.0020182944028133 -0.4315321933069146 0.449386471297205
1.0015851261241435 -0.290776706091741 0.3304514615318759
1.0172438307317941 0.19840395551406664 -0.0965715342156487
1.0141919680290519 0.2181869018676863 -0.06498464207373753
1.0113566510068703 0.2982293501303477 -0.13155636661052392
1.0145977787503278 0.32226428614783864 -0.15676092399096664
1.0110423763426746 -0.23394649303366322 0.12019209807233387
1.0095539560252416 -0.2346349109458905 0.11093485999248041
1.007536949074436 -0.00835723005042821 0.11514684562701312
1.0128032844040638 0.19282221635274688 -0.038483142753315595
1.014995969306219 0.32264655429523725 -0.15552987626104348
1.0153619827095943 0.1963729111691288 -0.040140231253551525
1.0162429400898096 -0.38051227280535094 0.4157384443123371
1.0169730269474566 0.27631798293945087 -0.12222819848511277
1.0136483872787914 -0.45695421299541605 0.3002529122922667
1.0200428778440462 -0.49091474840963123 0.3641743805635361
1.0142109647208484 0.3213444047461327 -0.1510978320528023
1.0092344783284197 -0.043954335491457774 0.07600897589888783
1.0190373879415524 -0.4210560389247212 0.4372348231859785
1.029290442642955 0.19494858246328528 -0.047726423877305926
1.0259045534384628 0.19657639943461125 -0.04542321689376758
1.0178232165711525 0.1808734426467773 -0.032351353547472386
1.0232780549649663 -0.26740446750853986 0.3279318278152425
1.0086187190815088 -0.2755241499265284 0.3172739855313901
1.0255747414111387 -0.26593752153195327 0.32899285305947246
1.0177220535228768 0.12836913517888204 -0.18775285524534074
1.0162773299382037 0.28348492995219443 -0.12200555644615689
1.0162026139566742 -0.4145267255680365 0.4387499525176519
1.0177561505320596 0.20341923354466673 -0.08986406312140703
1.0212484540105455 0.1701032291175768 -0.13566560153342053
1.0160045914624376 0.17433255898271005 -0.12970488560468396
1.0157876735115254 0.3273035016574446 -0.16459871083792083
1.0218100312084493 0.08828061151795996 0.03251074668008441
1.0177859259105086 -0.0867017476261629 0.024266119024750003
1.0202369303679053 -0.3712379004194166 0.3968844671199233
1.0209291219071481 -0.371515758932802 0.3898636608500813
1.0162547624534535 -0.36712143803683817 0.3875097822120217
1.0205717754740036 0.2700415779469292 -0.12038603677100745
1.0212066519678031 0.2708549548719674 -0.12054911648367594
1.018432687922885 -0.4674076232335379 0.3041364152278494
1.0222484802853435 -0.4681300516027892 0.30651322370766126
1.0068848422250531 -0.45851700374625526 0.2988279846412246
1.0393400084277358 -0.21848357110172434 0.13352659494678537
1.0321768288107331 -0.21656133625172203 0.13359060839137965
1.021972246847533 0.2167017370349047 -0.07306473802271259
1.022709413903676 0.2701181696234749 -0.11962217446510558
1.018238882323965 0.3252590534450466 -0.15440846166650485
1.023396400124173 -0.43262006599825464 0.4448572738525475
1.0386235015950527 0.11736314689530469 0.005397044020275594
1.0095365852195477 0.1439615255805886 -0.16787293940283815
1.0451837696526296 -0.1442254896005406 0.18954174507825627
1.0182601706199368 -0.1630275010771911 0.20749951159238073
1.0276476478190104 -0.3589841813767891 0.19804476982576566
1.01931411005258 -0.35406828042027705 0.2121435272806136
1.0142392695553883 -0.4529748980412982 0.3017665215005322
1.0206792834498497 -0.5015005210051418 0.3314026103671452
1.0237948658813696 0.1851967692940224 -0.11795460486598058
1.0224100891389258 0.18433722562038923 -0.11776992121265054
1.023869322440536 -0.38951590139999104 0.413179058566637
1.0249029501654996 -0.3875819571964281 0.419558447527587
1.0211151303038835 0.28015644252009664 -0.11903117730526946
1.0202067957172078 0.2195128884298041 -0.06763364983145856
1.0301884208695604 -0.02273146353008526 0.10442052191071627
1.032395541232052 -0.023557332988182633 0.10408351756339868
1.0192857302466256 0.15063018156929053 -0.16016163447516976
1.0108470256079896 0.14959597249305245 -0.16104202675426682
1.0266393472652828 -0.3885005428456453 0.41833207167243147
1.0163188656749491 -0.10617510848151257 -0.0013925408319280593
1.0248141890636293 -0.01976720023398304 0.10724324112442135
1.0197257166948255 0.2532117446773592 -0.2990378786422339
1.0157788657695366 0.2519308872750954 -0.2981258552664552
1.0235866768077306 -0.10209246346852163 0.003660567617514277
1.0174083372195704 -0.10452585936404324 0.0007959631704771517
1.023856888695153 0.2520888127257588 -0.2998572791980848
1.0119571563403975 -0.08489202729253931 0.06668091395667487
1.053732098719003 0.3273854919610053 -0.2051411029909283
1.0209676493620943 0.18955577580363858 -0.10983498738326826
1.0186350966303463 -0.41032389773021016 0.4388028248982053
1.0295375795604107 -0.06547557693411954 0.05002763619854819
1.0276685086416424 -0.06789576328739333 0.04871821259604007
1.0219224854840003 0.1918721005004378 -0.10654279715198221
1.0315123057720115 0.2812154187029825 -0.1211758415609136
1.019994751554781 0.2854010936689402 -0.1223123310078413
1.0262743209909182 -0.49124860405318993 0.3242457819701797
1.0220326452363098 -0.49927548770071783 0.32977253167044357
1.0299622125075407 -0.21923797442848292 0.14530748173684235
1.0261177036975955 0.3338923724885261 -0.16422654117802676
1.026385331506201 -0.40796084730318594 0.43411066371957313
1.0260356332167406 -0.47875479904248475 0.3131747394484786
1.0272505354261934 -0.013401525485024823 0.11457730369260502
1.0200572169695916 -0.010838542675009943 0.11529746382425754
1.0247766253684796 -0.014393300392457009 0.11337258336381091
1.0278341698056843 -0.480542287114058 0.31580265564249654
1.0174133415001867 -0.14337534840570143 0.23207118074297825
1.0311351318880193 -0.14535131575849713 0.2312559561179019
1.024093306016591 -0.25276104014545675 0.10656990659936469
1.0293661511840686 -0.14483381448051746 0.23335340486219683
1.0200045109979445 -0.2501987101208569 0.1066809644016912
1.030886123858299 -0.14539555695686945 0.23483937094304713
1.022436907772077 -0.1447513486573746 0.23866386284047467
1.0269994204105077 -0.40837183702151236 0.42941795340768374
1.0279993426504617 -0.4132530804256246 0.4289302837867819
1.0288726159025678 0.2676962373713292 -0.1152628136661548
1.0327572331544512 0.1617176869010022 -0.14496571112239967
1.0405764392710637 0.16112992140944415 -0.14555152054801923
1.0430746327050813 0.16333986026952219 -0.1471752989970509
1.0251204312776767 0.2744682504757918 -0.11626689328109954
1.0282300934054556 0.26895529432829135 -0.11494590463591614
1.0218652963924921 0.2734461207885648 -0.11874944278805327
1.0391886895285363 0.20294508362433272 -0.09395669727140583
1.0243169886764436 0.22220321702050883 -0.10500009875283527
1.0232434078146952 -0.051000094182263034 0.0687544060581185
1.0262209154748538 0.11991598604600684 -0.19743393269932652
1.0235581359621202 0.11954778354024453 -0.19720486841126583
1.0375113725630292 -0.23890018781312605 0.10789702991086987
1.0263585665007124 0.34010131705468183 -0.17935502901684489
1.040209137247344 -0.2729786234368843 0.31586151285663966
1.03374910459282 -0.27299167336645613 0.3182651592466346
1.027348734932287 -0.0875288229796154 0.02278578782420472
1.0225888372002405 0.27771624762408953 -0.11767121282787282
1.030759372688404 0.2706415016180701 -0.11403773180108873
1.0284012003556473 -0.40553652469496027 0.4309095954795738
1.0287846985610605 -0.45694330262975025 0.3225792487861189
1.0268424735447572 -0.4693971840465422 0.31122943066653136
1.0248509479997183 -0.4547633672603524 0.31544727445623766
1.0288802327359434 -0.3927519216167217 0.42179604159890616
1.029160223655803 0.3379197325752801 -0.1762812485069514
1.0253884958355344 -0.04636850710978102 0.07470566961097434
1.0299032547998515 -0.3969463584395285 0.4250384161189076
1.0281898117609338 -0.39201563364605785 0.41927726463856607
1.0320154630212348 -0.43384616561508293 0.44015312214823465
0.042309829529341716 0.697820472768965 0.1197308999223208
0.021840082024297332 0.7163882434739919 0.01064937819513802
1.0307082872847926 0.12630364219183332 -0.1894486876105606
1.0263715134170146 0.21515134868735375 -0.07728431787818658
1.028495580946996 0.21297782273433197 -0.08194636921136117
1.0208922125934832 0.21274788780909581 -0.08007112611021637
1.0334125356150092 -0.18825514320739645 0.18194712270120506
1.0252797179563475 -0.11074270847338319 -0.01599282941963141
1.0297837117797846 -0.40200374479462075 0.4224518181918523
1.0375813048451896 -0.398510339741704 0.4150800324567028
1.0215004372601058 -0.11504528791674895 -0.009823010938007703
1.0102330357353901 -0.11315449058318916 -0.010120999830841368
1.0215748819958788 -0.11307840731058105 -0.012756957514957493
1.011228187925814 0.33326576478688796 -0.16849221551893184
1.0368464395085575 -0.17122911353179848 0.202127642104453
1.0283305656599824 -0.3749424165602113 0.3913814019120688
1.022432163749744 -0.37146072048372636 0.39028417435193774
1.026873530296419 -0.2636532187194498 0.32912546510743546
1.040148307054319 -0.1099513114451387 -0.018918310952487378
1.0311018761020918 -0.261094543299629 0.32807862586498
1.0295718820755382 0.33486629860953876 -0.17039270050228117
1.0380055923063027 0.3367566856756299 -0.17629772288557038
1.027345857238858 0.22035489366412642 -0.06900305461301533
1.0207473913873164 -0.3854424068524819 0.40872751816977626
1.0324673736108518 -0.377381839325472 0.39633007700718437
1.0295177123598487 0.18371596672747836 -0.11888258055075322
1.0408483705565235 0.18231397160731655 -0.11988904159072002
1.0380181438330713 -0.07307567895337286 0.039545898748390734
1.0423648633464095 -0.22891227303081596 0.13246618349891925
1.025689743446117 -0.23624744317890656 0.12418884182973434
1.0272562609619822 -0.4386616714144016 0.3411911486250771
1.0306068369883972 -0.454417524463378 0.32878234041271387
1.0386826224757493 -0.10589030188277748 -0.008569755179133557
1.0247833529319574 -0.10677421485387306 -0.0032338658542033056
1.033672111063571 0.28545412418180494 -0.12274108707053676
1.0329283870794892 0.2836161178065879 -0.12180052883455546
1.0285932444712746 -0.43806184936418546 0.3434648246688407
1.0347096192855312 0.5105206626773007 -0.41288238500017616
1.04191258391569 0.268669823669512 -0.11392304641889846
1.0355835017766226 0.2716178182399709 -0.11494765301383705
1.028979882264812 0.2860053697742124 -0.12434943746446028
1.032070911624243 0.3362029569173015 -0.16654755139866206
1.0465519730458943 0.339612325235118 -0.17186004703717625
1.0288134158290207 -0.43736045731919293 0.3452301390985515
1.0305116103488707 -0.43742000586760943 0.3501204963272909
1.0347184604803814 -0.3802862763689794 0.3922046148673901
1.0309325096546709 0.2638506083960852 -0.11690880151600791
1.040979029724379 0.2581854590399719 -0.1153597295068137
1.0393436096785307 0.18739474021962366 -0.11312301555244855
1.0391827368038196 0.1874321627710085 -0.11381148201106422
1.0403828480305861 -0.22794146231015633 0.1414561143316869
1.0327755498556688 0.26494579153143993 -0.11486334588403098
1.0343026238349662 -0.4441859418911215 0.343478577344677
1.0350895115219023 -0.43771732179974676 0.34954936084395505
1.0463434426393796 -0.0531522461638958 0.06239017830754709
1.0441638684258077 0.3376954992482406 -0.16910577842648142
1.0345948533377698 -0.4380412547432462 0.3487304621952795
1.0374566978482551 0.2888848040183274 -0.12703885718970248
1.034327655931647 0.28911306238476486 -0.12826969424342285
1.0363495911144847 0.28455056753422503 -0.11925490837623871
1.03395818460545 0.3321087668184415 -0.1622092958260263
1.038569677931528 0.1456600471341627 -0.16486648863062311
1.0362390771618943 0.15911633573121042 -0.14742781727555426
1.0386185764846303 0.2817166659046535 -0.11765917083644718
1.0386362711345911 0.3338945606247925 -0.15911886204783143
1.038791050718217 0.33012033168939436 -0.1582854217799209
1.0381036557732362 0.32621633316719256 -0.15812054673588624
1.0379394267582533 0.28568647797369606 -0.11985984650873857
1.0356972673588114 0.2880754870610027 -0.12495743850260205
1.040097861066509 0.2886989185888029 -0.12809722471261736
1.0379648013509941 -0.1281712841721312 0.045188518124533505
1.046415791217255 0.33787971968621755 -0.16971930370610555
1.0443314083104362 0.33600055808452844 -0.16636424429755653
1.0378477222000828 -0.4221264015087477 0.36669721422745943
1.0368956362772737 -0.4231817117038533 0.36639807052139123
1.0363156137981848 -0.42630131659563897 0.3641917246477141
1.0401955050726963 -0.33881838545305776 0.21597310115792664
1.0382190811684882 -0.33505766410684146 0.2411744949685568
1.037093345602134 0.2876831108578872 -0.12172647595308325
1.0369672883420809 -0.42052171978651476 0.3671866328196728
1.0328809120612978 -0.42317670543422803 0.36637383390207245
1.0330584483234175 -0.4216761362234296 0.3668927592686516
1.0342698364084226 -0.41955595303853355 0.3655805533118483
1.0371443088081653 0.21884338713517115 -0.12535586123395578
1.040941329824393 0.21761720328083145 -0.12432645517886236
1.0514013692497488 0.2002161038173571 -0.09522043691960325
1.0325023410971896 -0.052377414712108106 0.06705215657808303
1.0524401754384147 -0.20040925176465718 0.1491269097387108
1.0428623218280089 -0.21603119104067492 0.1588300434589962
1.0429025784612926 0.2866583194356671 -0.12135271823167997
1.038941043429362 -0.08668757388167547 0.018878151808618012
1.0329260054493767 0.1171838944020287 -0.1973951453825084
1.0516194008939685 0.11102973491866441 -0.19627099531369874
1.0438245863915008 0.2736592286730817 -0.1181647628671666
1.03817556415436 -0.2429677925313507 0.31320234489508253
1.0283365981319328 -0.24317984998772424 0.31520698546701315
1.038726098770971 -0.24092989476231175 0.3151118464501714
1.033664948384615 -0.07629123662335302 0.03522861391626145
1.0418562991456244 -0.07906454019510623 0.027670885475937552
1.0404217935257885 0.3293960017956483 -0.1567477783141261
1.0382606635583738 0.3346599200586369 -0.16173732352652204
1.037760139832569 -0.2598191252540656 0.11085539051936466
1.0450091838796993 -0.24718096683247537 0.09898414925797842
0.7250959295448788 -1.3193669391793215 0.26037905215594764
0.7256308446165961 -1.3144004083162295 0.29042982249593063
1.0391372536274555 -0.41833688369706956 0.36926938555029143
1.0324521742894068 -0.4170005952179794 0.3673957433080175
1.0342419140529289 -0.41491009230359954 0.36633403693537825
1.0402385365900815 -0.41549791862883145 0.37389103656937756
1.0477869547226764 0.33900173833373737 -0.18140369057858236
1.051736788971803 0.3376355322040854 -0.18062241261078027
1.0380493954566672 0.3393948241787539 -0.1797451824685768
1.0403681877091944 -0.2381502891272973 0.31573007869621245
1.042460163111246 -0.24474603712638987 0.3187144577504758
1.0427350028150237 -0.24733105148036483 0.31639265259161925
1.043723580888078 -0.25505970464720296 0.32100593728846416
1.0398907002263498 -0.2049022469476296 0.16846493445124497
1.0390242351400094 -0.19590738060658142 0.17663441786809653
1.036260672782659 -0.04799738475966153 0.07307525847776136
1.0374064658545021 -0.42731842041629675 0.36220058896425655
1.0368174606209437 0.33748179540280665 -0.1720679864224643
1.0400538468260567 0.3239342243825041 -0.15685462659355268
1.0388053342786872 0.28159178483968406 -0.11773966770218662
1.0341534649686066 -0.4304223100833875 0.439335107067127
1.0451943296026376 -0.04661388552654655 0.07163449684993173
1.0452560464402105 -0.035007615796018854 0.0875515047485757
1.0369359817634027 -0.14764882020884973 0.22918533428789162
1.042425529701613 -0.2340157885249694 0.3116205947196264
1.0431390066802595 0.33351054716470374 -0.1584294643350957
1.032915319555611 0.12578298637895835 -0.19028431206238178
1.0449753262630952 0.3398786841391932 -0.17396522043371557
1.042431704299083 -0.23434472167089426 0.31102357023946964
1.0402049833724156 0.3350619480073931 -0.15982057138186626
1.0435723167111328 0.21160268786166236 -0.08263921428740204
1.0363388995163911 -0.3836935178727119 0.3910865910984759
1.0389174049412022 -0.3836885137438396 0.40107250290644364
1.0454853753461169 -0.24427113534904188 0.11075420727032129
1.03056401335582 0.2148747616185145 -0.07796237198212808
1.0366822262231776 0.2128563909084451 -0.0811219662613011
1.0490805702619437 0.33977995829396956 -0.17251640007487767
1.0407064505274408 0.32769545158977875 -0.15653063207521983
1.0447492990692466 0.16505548811362414 -0.13967681892258443
1.0557318132875555 0.16591049126650614 -0.14318887127858823
1.041391800473237 -0.10382704889044447 -0.009575921482156236
1.0446147322346138 0.1668242190131819 -0.13721211346597764
1.0433864354207014 -0.09497094722113686 0.0023653151225452892
1.0386977038290846 0.5327407624411375 -0.3829289345929103
1.0416667851887558 -0.24282671995407945 0.3191673460946417
1.0420126271418244 0.530996713154031 -0.37959942617988074
1.0419547105519644 0.28819071849091427 -0.12327442637002661
1.0438662387835707 0.28596533142143743 -0.12367657247137456
1.0462644430249881 0.33343101740473147 -0.15932926175272863
1.0467408199051202 0.26099178660769184 -0.1124111500640762
1.0402918904207032 -0.07275323291619129 0.038289522233255935
1.044863622537028 -0.35441190207603857 0.18101276972147484
1.0449069675204843 0.325895490689466 -0.1576103176582743
1.0436768601868942 -0.23553096275922325 0.31314130262160117
1.0501869107400112 -0.2891300117998916 0.2965407710321784
1.045257825761073 -0.2762590303196266 0.3080207330223926
1.0477845381997608 -0.26611076752651863 0.321211503612694
1.0399434377139525 -0.43054081006795986 0.43438278103151806
1.0365772332229635 -0.4518678255845521 0.40021498467930394
1.0473734533774754 0.21861285004823428 -0.0732600930768528
1.0443630410034839 -0.3924513207052931 0.40738278641247516
1.0389107000110571 -0.38747590473174254 0.4060334562312361
1.034414657529866 -0.38724673292601053 0.4069158307892371
1.0528068833360629 -0.06965497596163694 0.034292468824338784
1.0459071319328928 0.33557102585323517 -0.16601091656585615
1.0395668208919506 0.26452174298039344 -0.11218824260240276
1.0364012793678723 0.2649262286215093 -0.11261863788694364
1.043477984184031 0.28147208954838643 -0.12075492775062172
1.0437683547974206 0.3362931602555821 -0.16324653441665715
1.0306714589983448 0.5432825787920623 -0.3789727836823994
1.0504889617838495 -0.0670749990634083 0.04237614848597192
1.0472704566003515 -0.05677938323074705 0.05670550639811772
1.0442282031240149 -0.167200624929019 0.2530037588830546
1.0478248326228543 -0.0534993318035093 0.0612137769819153
1.0444475188062252 -0.1688497395162194 0.2548636855022697
1.0560767996018254 0.3385605235994116 -0.17263665537968131
1.044072395317913 0.1390010166777904 -0.17097969322087522
1.0500170325241813 0.13650838594947623 -0.1708565942371445
1.0456143778290945 0.28019080267009233 -0.12366422557207551
1.0493422079831485 0.2097902724114924 -0.12750290513015147
1.046110176439649 0.21340916122941045 -0.12952211625050858
1.0629162431129273 -0.17527927957078093 0.1778187731710275
1.0452934885825933 -0.23470665513644517 0.30920365307635755
1.0491774005545413 0.32737680275406467 -0.16151028932780617
1.0459450878677927 -0.26534887806966156 0.32345772822781016
1.0561744806039073 -0.22800734443200676 0.12859670112832067
1.0865761670204623 0.31421752040269446 -0.16035900565118832
1.0891609933983983 0.3043280595108637 -0.15302632261307622
1.0418477090528724 -0.09087643933868095 0.011140654312537872
1.0479580849685899 -0.17209218475659993 0.2567449393191604
1.0691064208469059 0.29385419631583454 -0.14014515954130605
1.0403727511884353 -0.39321100067071746 0.3895567409469432
1.0466645278708728 -0.23566083915801705 0.30748976440033154
1.0347626498592308 0.14653481693551162 -0.16386668017266948
1.0488115436357757 -0.39826503154635395 0.40746601736131305
1.0470958127407126 -0.16173405608281133 0.25100816875970267
1.0453933303410283 0.1446732719917836 -0.16325192722956727
1.0498687220264544 -0.024993420513935716 0.10096861122747225
1.0514226871752714 -0.16892654185599087 0.25873939753380326
1.046931383800275 -0.018838857576644275 0.10865737304323311
1.0529211393681344 -0.020684842421035965 0.10417577317100443
1.0569459303456301 -0.024118116568652814 0.09884805579424534
1.0381219162000925 -0.22777787996452314 0.14252453237510937
1.0543003305467666 -0.23695198920081295 0.15079072758331644
1.04770021003069 -0.1622662836691755 0.24888889117492302
1.046515680676979 -0.1624043193577549 0.2471614254123392
1.048073180286985 0.5256181869820757 -0.3837041328721897
1.0426103586951965 0.5327813631838392 -0.3883884750983582
1.0345669764844019 0.5410355264493631 -0.38670861385728694
1.0485345392006247 -0.29706184667943014 0.281036614280657
1.049065830927217 -0.29353847434340263 0.2805284803855316
1.031084832660177 -0.3042740323046331 0.27648459263751357
1.0464401450971736 0.33403741421412847 -0.1608383828282893
1.0476991537688387 -0.4189325882677519 0.4245222599781307
1.0483094172700937 -0.41253368568006643 0.42086021143208063
1.0350854824797062 -0.4054650192309406 0.4211297039498259
1.0501772820146438 -0.17175430817685866 0.25963445602131424
1.0584162238854136 -0.227764656915322 0.2960408917347157
1.0516281603844837 0.32692596969305465 -0.16195421451365727
1.0495915129858902 -0.05204920725213813 0.0630171262734528
1.0412781234149282 -0.05312609374402211 0.06530574230304328
1.0475228742232616 -0.10186621143484542 -0.013924377590584694
1.0494323614250114 -0.15983086823526582 0.2516973371817437
1.0486402269405548 -0.40302244078156535 0.4142005774748472
1.0465082474008278 0.33880395180148004 -0.17707553520246716
1.0493934669951834 0.32833306685784347 -0.16173495292319198
1.0470231687842955 0.33432458536937903 -0.16344749321044658
1.0472697059649043 -0.2474185035475771 0.31787700498603644
1.0508392192040203 -0.24736394648986693 0.3140237786233296
1.0364917971011165 -0.014425415624358617 0.11388630568516331
1.059864340058273 0.10537376585699199 -0.19353462576381736
1.04863720717929 -0.24522828759891313 0.31905935025380755
1.0469407441009648 -0.26857401279242565 0.11330512592545573
1.048635220564081 -0.16928204349032083 0.25946426534931255
1.065114913413666 -0.1661856289433974 0.2039798151168064
1.0454305196524856 -0.17372464606223081 0.2043034807973004
1.05187772465607 0.3322064349350353 -0.16628558081007833
1.0487457536515674 -0.04717747920707138 0.07008283798085053
1.0511133121483711 0.20967612802628555 -0.12776444837745696
1.0557255207685474 -0.03420137027303172 0.08416386367435301
1.0498370373001595 0.15832768340008285 -0.14615081946157665
1.0454723500876788 0.15098722230523975 -0.15587564968326745
1.0484615374841106 0.12036765947639694 -0.18915214472388886
1.0523766931641343 0.13325457451048317 -0.17266815462329432
1.0653041373576757 0.3341231703056149 -0.17120852051333302
1.0460076018520343 -0.42873393676976845 0.4139729706523256
1.0464693454395984 -0.4281355061310754 0.3987698161276203
1.0459079673638747 -0.10774815575324626 -0.021935093033187497
1.0502335082679997 -0.10304276602342166 -0.026908412425141446
1.0551025929595341 0.25559233370699497 -0.11655733872956264
1.0480599003321087 0.2562709057157577 -0.1154277621312294
1.0471144373845576 0.2594091107308021 -0.1138734416058564
1.039177587348409 0.20058393690023846 -0.09636823837485106
1.0509750165272669 -0.07588558928384903 0.024284640557099006
1.053399216535165 -0.1607005117876601 0.2489121212174531
1.0520895581327492 -0.17153793976242238 0.259761766233342
1.0521703667168736 -0.2501315060933329 0.3151642615358044
1.0521840022436264 -0.23786778391555918 0.312821710532652
1.046065420405554 -0.2420911919008708 0.3181081072159151
1.0567144230913375 -0.07678429173096779 0.04013806564279367
1.0512634233903713 0.1637549748774758 -0.14002095626650546
1.046987776974804 0.2615363184452082 -0.11214166184882948
1.0482853818851157 -0.41939137275231864 0.40149748346757236
1.05700484196297 0.17139813176222685 -0.12761930414240263
1.0669744020681462 -0.2651373719560499 0.30206208064226625
1.0546076470965946 -0.2122385807769085 0.17344529998897668
1.0567804861434482 -0.16336408392972634 0.24779189333144755
1.0517283226505474 -0.24225199896406258 0.3164447250635104
1.0535585561168295 0.26218858300671677 -0.11281932153532567
1.0484114304703738 -0.08884040025729112 0.007662405705282694
1.0520561621982032 -0.2366935848346925 0.3107309245088196
1.0525629887477606 -0.34714408783350525 0.17345710527547484
1.0496058910948838 -0.06579547805590091 0.0426831185373243
1.050698435328871 -0.0910911258887328 -0.0015461104319581098
1.0538798965777256 -0.09013393119645685 -0.009088518807698627
1.0566172458021539 -0.08158053033155221 -0.006891877489066776
1.0533305773462762 -0.09336198697462672 -0.02035725655080166
1.05374782925656 -0.2412854811313352 0.310942314718751
1.057683095503188 -0.23585640655204454 0.3025969961319865
1.053823250442681 -0.16401618279950636 0.25422381280405376
1.0549677006173437 -0.10356400859458281 -0.013604451175170524
1.0508660248815336 -0.16116642116880842 0.24509164710489667
1.0538925179428071 -0.15360953797428012 0.23746876933913022
1.056394199765174 0.2200914319143108 -0.11148763804286096
1.0486110714183212 0.22205988568508195 -0.11233285095889035
1.052463963666189 0.210071726647294 -0.08535372257087995
1.057564806513347 0.20869878560333732 -0.08480680866074297
1.0620213472099762 0.21028377649542973 -0.08576728922775831
1.0547915772902872 0.212862896749479 -0.11926575551858645
1.045962290258229 -0.0330273127274876 0.09018309301297073
1.0542410409056997 -0.03243710515351195 0.08830996051914179
1.049165755316801 -0.08430454205546623 0.014725871286151479
1.0586336153166802 -0.06928473909986543 0.0212917969236593
1.0480241978224207 -0.15083211871319535 0.2310642831020568
1.060461829100152 -0.1576382723206291 0.2327399679814655
1.055548335548961 0.13398311302264587 -0.1696615569556341
1.054371458131226 -0.08083773030985197 0.010589714137667426
1.053920333217565 -0.24159006429488028 0.3145957893680403
1.0536684919529375 -0.09244423957898196 -0.022070313460760452
1.0439866789238805 -0.14869583414540033 0.23248658546908413
1.0535690999391436 0.14678787095631218 -0.17869965405730026
1.0536326923077024 -0.17357315595794676 0.25768935681089444
1.0470722991873145 0.14313104609907512 -0.1652992744482024
1.0363224164715246 0.21936565099880312 -0.07009387252776433
1.0581515655198184 0.21627346135138237 -0.07410058358337299
1.0569868114242083 0.21632173581865888 -0.07448996422330453
1.050135668521802 -0.2409417328673764 0.1410313149088183
1.0616084441554883 -0.24053193135455286 0.13850493461227317
1.063833157317215 0.1752856605541786 -0.11992662857756274
1.0661347758242101 -0.1102488615671402 -0.005003781036392287
1.060516432923416 -0.021313469860721357 0.10030882209630673
1.0646985844315149 -0.028503196085161164 0.10097097315109613
1.0642592556271837 -0.1995180430309531 0.1893497660560544
1.0527704282931323 -0.0515003191221457 0.06048007483636229
1.0698252049741284 0.3366279878734446 -0.18498703165721944
1.0525901641570752 0.3377162448329176 -0.18092675730743218
1.0613703163762511 0.33602780024874 -0.18132319888662418
1.0597387422490816 -0.16472374489523256 0.24995294286703618
1.0577270420032292 -0.17150149113602087 0.2557950167455216
1.0541522570675061 0.18444790453648263 -0.11517112400525101
1.0512162705899204 0.18520121040679394 -0.11377484842402502
1.0520193622415699 -0.08692183867523107 0.00520144989864224
1.056348294785511 0.3575821854618524 -0.25308355007229605
1.0560042336518976 -0.16246800147323115 0.24498728279491347
1.0645386342041028 -0.1942090208967211 0.20187321628358562
1.0480780373779912 -0.1831269484781306 0.19648428158694156
1.0572973272949437 0.33925877310937813 -0.17540180155499088
